ply
format ascii 1.0
element vertex 343
property float x
property float y
property float z
property float intensity
end_header
-0.2607727 -0.13447762 -0.914627 0.0
-0.25448132 -0.109200954 -0.91436 0.0
-0.24825191 -0.08394289 -0.914085 0.0
-0.24208069 -0.058702946 -0.91381806 0.0
-0.23591709 -0.03345108 -0.91355103 0.0
-0.22976112 -0.008187771 -0.913284 0.0
-0.22366619 0.017056942 -0.9130251 0.0
-0.21757793 0.042313576 -0.91275805 0.0
-0.21150017 0.067584515 -0.91249806 0.0
-0.20547867 0.092833996 -0.912239 0.0
-0.19951725 0.11806488 -0.911979 0.0
-0.19356441 0.14330626 -0.91172 0.0
-0.18761921 0.16856194 -0.91146106 0.0
-0.18173504 0.19379997 -0.91120905 0.0
-0.17585754 0.2190485 -0.91095704 0.0
-0.17004013 0.24427843 -0.910698 0.0
-0.16423035 0.26952124 -0.910446 0.0
-0.15842819 0.29477358 -0.9102021 0.0
-0.15268517 0.32000828 -0.9099501 0.0
-0.14695168 0.3452568 -0.90969807 0.0
-0.14127445 0.37048292 -0.90945405 0.0
-0.13560867 0.39572477 -0.90921 0.0
-0.13000107 0.42094612 -0.908966 0.0
-0.12440109 0.44617748 -0.908722 0.0
-0.11885929 0.4713893 -0.908485 0.0
-0.11327553 0.4966483 -0.908241 0.0
-0.1078043 0.5218568 -0.90800506 0.0
-0.10233784 0.54707384 -0.9077681 0.0
-0.09697628 0.57234335 -0.90752405 0.0
-0.09168625 0.5976119 -0.90727204 0.0
-0.0864048 0.62289524 -0.907028 0.0
-0.08118248 0.64815855 -0.906784 0.0
-0.07601929 0.6734009 -0.906547 0.0
-0.070812225 0.69868755 -0.906303 0.0
-0.06571674 0.7239237 -0.9060671 0.0
-0.06057644 0.7492008 -0.9058301 0.0
-0.05549431 0.7744603 -0.90559405 0.0
-0.050474167 0.79970074 -0.90535706 0.0
-0.0454607 0.82495165 -0.905121 0.0
-0.040452957 0.850214 -0.904892 0.0
-0.035507202 0.87545776 -0.90465504 0.0
-0.030568123 0.90071344 -0.90442604 0.0
-0.025688171 0.9259496 -0.90419704 0.0
-0.02081585 0.95119715 -0.903969 0.0
-0.015951157 0.9764571 -0.90374 0.0
-0.011145592 1.0016966 -0.903518 0.0
-0.0063991547 1.026916 -0.903297 0.0
-0.0016098022 1.0521812 -0.903068 0.0
-0.06209278 -0.07413864 -0.8172911 0.0
-0.089897156 -0.035253048 -0.81459004 0.0
-0.09681606 -0.0046663284 -0.8134 0.0
-0.09488487 0.022426128 -0.81285805 0.0
-0.08630562 0.046907425 -0.812805 0.0
-0.071222305 0.068902016 -0.813225 0.0
-0.048065186 0.08784008 -0.81423205 0.0
-0.009572983 0.10105467 -0.81633705 0.0
0.13428116 0.074622154 -0.82605 0.0
0.14603424 0.098276615 -0.82623297 0.0
-0.062091827 -0.074139595 -0.707924 0.0
-0.08989525 -0.035256386 -0.705513 0.0
-0.096814156 -0.0046696663 -0.70445204 0.0
-0.09488392 0.022424221 -0.70397204 0.0
-0.086304665 0.046906948 -0.703926 0.0
-0.071222305 0.068902016 -0.70430005 0.0
-0.048064232 0.0878396 -0.705192 0.0
-0.009572983 0.10105467 -0.707077 0.0
-0.062083244 -0.07415295 -0.59865505 0.0
-0.08989525 -0.035255432 -0.596535 0.0
-0.09681511 -0.0046687126 -0.595604 0.0
-0.09488392 0.022423744 -0.595184 0.0
-0.08630562 0.04690838 -0.595138 0.0
-0.07122135 0.06890106 -0.595466 0.0
-0.048064232 0.0878396 -0.596252 0.0
-0.00957489 0.1010561 -0.597908 0.0
-0.062091827 -0.07414055 -0.48946404 0.0
-0.09473801 -0.033358097 -0.487396 0.0
-0.10266781 -0.0024170876 -0.48654902 0.0
-0.101029396 0.024801731 -0.48616803 0.0
-0.09251213 0.0492692 -0.48613 0.0
-0.0771637 0.07118082 -0.486427 0.0
-0.053256035 0.08983755 -0.48713702 0.0
-0.011284828 0.10172939 -0.48873103 0.0
-0.15924454 -0.14746761 -0.37792903 0.0
-0.18949223 -0.107424736 -0.37628204 0.0
-0.20586109 -0.07307291 -0.37521303 0.0
-0.21499252 -0.041698933 -0.37445003 0.0
-0.21912766 -0.012357235 -0.37388605 0.0
-0.21939373 0.015382767 -0.373497 0.0
-0.21628094 0.04184246 -0.373237 0.0
-0.21024227 0.06706476 -0.37310004 0.0
-0.20130348 0.09120178 -0.37308502 0.0
-0.18952847 0.114239216 -0.373192 0.0
-0.17476463 0.136168 -0.373421 0.0
-0.15679169 0.15686035 -0.373779 0.0
-0.13502026 0.17618084 -0.37429804 0.0
-0.1085186 0.19378185 -0.37500703 0.0
-0.07535839 0.2089901 -0.375992 0.0
-0.03065586 0.21995401 -0.37744904 0.0
-0.18181515 -0.16630936 -0.268905 0.0
-0.211483 -0.12650442 -0.26759303 0.0
-0.2287569 -0.09173584 -0.26669303 0.0
-0.23923492 -0.059815407 -0.26602903 0.0
-0.24496937 -0.029865265 -0.26552603 0.0
-0.24696732 -0.0014195442 -0.26514402 0.0
-0.24586678 0.025738716 -0.26486903 0.0
-0.2419405 0.051816463 -0.26468602 0.0
-0.23549175 0.0768404 -0.26459503 0.0
-0.22651863 0.10091972 -0.26458004 0.0
-0.21508312 0.124043465 -0.26465604 0.0
-0.20110035 0.14618778 -0.26481602 0.0
-0.18439388 0.16730118 -0.26506802 0.0
-0.16456795 0.18732452 -0.26541904 0.0
-0.14113235 0.20604515 -0.26589203 0.0
-0.113269806 0.22307491 -0.26651704 0.0
-0.079063416 0.23786974 -0.26734903 0.0
-0.034255028 0.24889565 -0.26853204 0.0
0.041876793 0.24857855 -0.27074403 0.0
-0.18217945 -0.16618586 -0.16045403 0.0
-0.21166515 -0.12644434 -0.15945402 0.0
-0.22886086 -0.09168482 -0.15876701 0.0
-0.23932552 -0.059785366 -0.15826404 0.0
-0.24504948 -0.029851437 -0.15787503 0.0
-0.24699211 -0.0013785362 -0.15758502 0.0
-0.24588966 0.025774956 -0.15737101 0.0
-0.24201202 0.051816463 -0.15723404 0.0
-0.23550987 0.076868534 -0.15716502 0.0
-0.22653675 0.10094881 -0.15715802 0.0
-0.21510029 0.1240716 -0.15721104 0.0
-0.20117283 0.14618874 -0.15733302 0.0
-0.18441772 0.16733932 -0.15753204 0.0
-0.16464806 0.18733835 -0.15779904 0.0
-0.14121914 0.20606995 -0.15815702 0.0
-0.11331749 0.22315216 -0.15863803 0.0
-0.07918644 0.23795271 -0.15927103 0.0
-0.0345335 0.24899769 -0.16017103 0.0
0.040766716 0.24897909 -0.16184202 0.0
-0.18217468 -0.16619253 -0.052048028 0.0
-0.21166706 -0.12644196 -0.051361024 0.0
-0.22886086 -0.09168482 -0.05088803 0.0
-0.23932457 -0.059787273 -0.050537035 0.0
-0.24505043 -0.029850483 -0.05027002 0.0
-0.24699116 -0.0013804436 -0.050064027 0.0
-0.24588776 0.025772572 -0.049919024 0.0
-0.24201202 0.051816463 -0.049827024 0.0
-0.23550797 0.07686567 -0.04977402 0.0
-0.2265377 0.100949764 -0.04977402 0.0
-0.21510124 0.12407303 -0.049812034 0.0
-0.20117283 0.14618778 -0.04989603 0.0
-0.18441772 0.16733932 -0.05002603 0.0
-0.16464806 0.18733835 -0.050216034 0.0
-0.1412201 0.2060709 -0.050461024 0.0
-0.11331749 0.22315216 -0.050796032 0.0
-0.079185486 0.23795176 -0.051231027 0.0
-0.034535408 0.2489996 -0.051857024 0.0
0.040761948 0.24898672 -0.053009033 0.0
-0.10811043 -0.28052092 0.05532098 0.0
-0.10044575 -0.25548935 0.05534397 0.0
-0.18238735 -0.16608286 0.05633597 0.0
-0.2118597 -0.12636232 0.05671698 0.0
-0.2290926 -0.0916605 0.056976974 0.0
-0.239501 -0.059734344 0.05716698 0.0
-0.24516678 -0.02977848 0.05731997 0.0
-0.24715519 -0.0013480186 0.057426974 0.0
-0.24604702 0.02579832 0.057510972 0.0
-0.24211597 0.051867962 0.057563975 0.0
-0.23561192 0.07691717 0.057586968 0.0
-0.22663593 0.10099316 0.057586968 0.0
-0.21524906 0.12407923 0.057571977 0.0
-0.20121384 0.14625406 0.057525977 0.0
-0.18450546 0.16736555 0.057449967 0.0
-0.16468143 0.18739176 0.057342976 0.0
-0.1413002 0.20608425 0.057204977 0.0
-0.11339283 0.2231574 0.057021976 0.0
-0.07925129 0.23794222 0.05677797 0.0
-0.034534454 0.24899864 0.056434974 0.0
0.04090309 0.24887514 0.05579397 0.0
0.0027360916 0.29056644 0.056251973 0.0
-0.0043563843 0.32073832 0.056411967 0.0
0.036133766 0.33362675 0.056098968 0.0
-0.10288429 -0.2544546 0.16450498 0.0
-0.09521389 -0.22943258 0.16451298 0.0
-0.18238735 -0.1660819 0.16469598 0.0
-0.21186066 -0.12635994 0.16476497 0.0
-0.22909355 -0.09165859 0.16481797 0.0
-0.23949623 -0.059741974 0.16485597 0.0
-0.24516678 -0.02977848 0.16488697 0.0
-0.24715424 -0.0013489723 0.16490197 0.0
-0.24604607 0.025796413 0.16491698 0.0
-0.24211502 0.05186701 0.16493197 0.0
-0.23561192 0.07691765 0.16493197 0.0
-0.22663498 0.10099125 0.16493997 0.0
-0.21524715 0.12407684 0.16493197 0.0
-0.20121384 0.14625502 0.16492498 0.0
-0.18450642 0.16736746 0.16490997 0.0
-0.16468143 0.18739176 0.16488697 0.0
-0.1413002 0.2060852 0.16486397 0.0
-0.11339283 0.2231574 0.16482598 0.0
-0.07925224 0.23794413 0.16477998 0.0
-0.0345335 0.24899769 0.16471097 0.0
0.0030136108 0.26280928 0.16466497 0.0
0.015394211 0.2859149 0.16465797 0.0
0.05955887 0.29751396 0.16459697 0.0
-0.069906235 -0.2396493 0.27378097 0.0
-0.1823883 -0.16608 0.27304897 0.0
-0.21185493 -0.12636948 0.27281997 0.0
-0.2290945 -0.091658115 0.27265996 0.0
-0.23949814 -0.05973959 0.27253696 0.0
-0.24516773 -0.029777527 0.27244598 0.0
-0.2471571 -0.0013451576 0.27237695 0.0
-0.24604797 0.025799274 0.27233097 0.0
-0.24211502 0.05186701 0.27230096 0.0
-0.23561096 0.07691622 0.27227798 0.0
-0.22663593 0.1009922 0.27227798 0.0
-0.21524811 0.1240778 0.27229297 0.0
-0.20121288 0.14625311 0.27232397 0.0
-0.18450642 0.1673665 0.27236998 0.0
-0.16468143 0.1873908 0.27243096 0.0
-0.1413002 0.2060852 0.27251497 0.0
-0.11339283 0.2231574 0.27262896 0.0
-0.07919979 0.23797464 0.27277398 0.0
-0.0345335 0.24899769 0.27298796 0.0
0.022195816 0.25574923 0.27326998 0.0
0.04194355 0.27624464 0.273331 0.0
-0.1823883 -0.16608095 0.38141698 0.0
-0.2118578 -0.12636614 0.380875 0.0
-0.22909546 -0.091655254 0.38050896 0.0
-0.23949909 -0.059737682 0.38023397 0.0
-0.24516678 -0.029778957 0.38001996 0.0
-0.24715519 -0.001347065 0.37985998 0.0
-0.24604797 0.025799274 0.379753 0.0
-0.24211693 0.05186844 0.37967697 0.0
-0.23561192 0.07691765 0.37963897 0.0
-0.22663403 0.100990295 0.37963098 0.0
-0.21524811 0.1240778 0.37966198 0.0
-0.20121288 0.14625311 0.37973 0.0
-0.18450642 0.1673665 0.37983698 0.0
-0.16468143 0.18739176 0.37998196 0.0
-0.1413002 0.2060852 0.38018095 0.0
-0.11339283 0.2231574 0.38043195 0.0
-0.07919979 0.23797464 0.38078296 0.0
-0.0345335 0.24899769 0.38127196 0.0
0.040905952 0.24887037 0.38217896 0.0
-0.1823864 -0.16608381 0.48980698 0.0
-0.2118578 -0.12636518 0.48895997 0.0
-0.22909355 -0.09165859 0.48837298 0.0
-0.23949814 -0.05973959 0.48794597 0.0
-0.24516678 -0.02977848 0.48761797 0.0
-0.24715614 -0.0013461113 0.48736596 0.0
-0.24604988 0.025801659 0.48718998 0.0
-0.24211597 0.051867962 0.48706797 0.0
-0.23561001 0.076915264 0.48700696 0.0
-0.22663689 0.10099363 0.48700696 0.0
-0.21524811 0.1240778 0.48705298 0.0
-0.20121288 0.14625311 0.48715997 0.0
-0.18450546 0.16736555 0.48731998 0.0
-0.16468143 0.18739176 0.48754898 0.0
-0.1413002 0.2060852 0.48786196 0.0
-0.113391876 0.22315693 0.48826596 0.0
-0.07919979 0.23797464 0.48880798 0.0
-0.034532547 0.2489953 0.48957098 0.0
0.040904045 0.24887371 0.49099797 0.0
-0.18238926 -0.16607857 0.59822893 0.0
-0.2118578 -0.12636614 0.59706897 0.0
-0.22909546 -0.09165621 0.596276 0.0
-0.23949718 -0.059740543 0.595688 0.0
-0.24516773 -0.029776573 0.595238 0.0
-0.24715519 -0.001347065 0.594902 0.0
-0.24604797 0.025799274 0.59465796 0.0
-0.24211693 0.05186844 0.594498 0.0
-0.23561096 0.07691622 0.594414 0.0
-0.22663593 0.10099316 0.594406 0.0
-0.21524811 0.124078274 0.594475 0.0
-0.20121288 0.14625311 0.594612 0.0
-0.18450642 0.1673665 0.594841 0.0
-0.16468143 0.1873908 0.5951539 0.0
-0.1413002 0.2060852 0.59557396 0.0
-0.113391876 0.22315693 0.596123 0.0
-0.07919979 0.23797464 0.596863 0.0
-0.034534454 0.24899864 0.59790796 0.0
0.040902138 0.2488761 0.599854 0.0
-0.18244362 -0.16610622 0.706688 0.0
-0.21185589 -0.12636757 0.70522296 0.0
-0.2290926 -0.0916605 0.704224 0.0
-0.23949814 -0.05973959 0.70347595 0.0
-0.24516678 -0.02977848 0.702904 0.0
-0.24715424 -0.0013494492 0.702477 0.0
-0.24604797 0.025799274 0.702172 0.0
-0.24211502 0.05186701 0.70197296 0.0
-0.23561096 0.07691622 0.701866 0.0
-0.22663593 0.1009922 0.70185095 0.0
-0.21524715 0.12407684 0.701935 0.0
-0.20121288 0.14625311 0.702118 0.0
-0.18450546 0.16736555 0.70239997 0.0
-0.16468143 0.18739176 0.702797 0.0
-0.1413002 0.2060852 0.703331 0.0
-0.11339283 0.2231574 0.704025 0.0
-0.07919979 0.23797464 0.704964 0.0
-0.034532547 0.2489953 0.706284 0.0
0.04090786 0.24886751 0.708748 0.0
-0.18228722 -0.1661272 0.815209 0.0
-0.21178722 -0.1263628 0.81343895 0.0
-0.22903633 -0.0916338 0.81221795 0.0
-0.23949432 -0.05974531 0.811318 0.0
-0.24516869 -0.02977562 0.810631 0.0
-0.24715424 -0.0013494492 0.810112 0.0
-0.24604702 0.025797367 0.809738 0.0
-0.24211693 0.05186844 0.80949396 0.0
-0.23561192 0.07691765 0.809365 0.0
-0.22663593 0.1009922 0.809357 0.0
-0.21524906 0.12407923 0.809456 0.0
-0.20121384 0.14625502 0.80967 0.0
-0.18450642 0.1673665 0.810013 0.0
-0.16468143 0.1873908 0.81049395 0.0
-0.14129925 0.20608377 0.81114197 0.0
-0.11338711 0.2231493 0.81198895 0.0
-0.07918739 0.2379551 0.813118 0.0
-0.034443855 0.24896812 0.81472 0.0
0.041521072 0.24868917 0.81772596 0.0
-0.16349983 -0.14570618 0.92427796 0.0
-0.19275475 -0.10610294 0.922211 0.0
-0.20874214 -0.07190418 0.92085296 0.0
-0.21766758 -0.040629387 0.919876 0.0
-0.22169113 -0.011351585 0.919159 0.0
-0.22186852 0.016360283 0.918656 0.0
-0.21872807 0.042776108 0.918328 0.0
-0.2126255 0.06800985 0.918152 0.0
-0.20368004 0.09213686 0.91813695 0.0
-0.19196033 0.115147114 0.918274 0.0
-0.17720795 0.13709497 0.91856396 0.0
-0.15931034 0.15779305 0.919029 0.0
-0.13758183 0.17718172 0.919693 0.0
-0.11125374 0.19483137 0.92060095 0.0
-0.07847881 0.21008253 0.921852 0.0
-0.03438759 0.2213378 0.92369896 0.0
0.054574013 0.21609116 0.92791 0.0
-0.07911301 -0.06743717 1.03582 0.0
-0.10428524 -0.0296669 1.033715 0.0
-0.1106596 0.00073719025 1.032746 0.0
-0.108584404 0.027712822 1.032303 0.0
-0.09998417 0.052163124 1.032265 0.0
-0.08499336 0.074187756 1.032608 0.0
-0.062187195 0.093229294 1.033432 0.0
-0.025068283 0.10692167 1.035118 0.0
